ply
format ascii 1.0
element vertex 1185
property float x
property float y
property float z
property uchar red
property uchar green
property uchar blue
end_header
-1.093505 -0.016688 2.304743 255 255 255
-1.725314 -0.276178 -0.305087 255 255 255
-1.696251 -0.004296 -1.288209 255 255 255
1.595840 -0.272455 -1.024141 255 255 255
-1.492510 -0.176624 2.303493 255 255 255
-3.963213 -0.083995 1.269511 255 255 255
1.595715 -0.275440 -1.126528 255 255 255
-1.925560 0.342566 1.673437 255 255 255
0.098854 -0.215858 2.329123 255 255 255
-1.855294 0.651031 1.292040 255 255 255
1.562036 -0.272362 -1.190753 255 255 255
-2.043212 0.075458 1.825221 255 255 255
-3.472107 1.089371 0.822634 255 255 255
-3.303711 0.673722 -1.352201 255 255 255
1.588507 -0.276813 -1.205866 255 255 255
-3.460582 0.972291 -1.276034 255 255 255
1.554217 -0.271640 -1.204900 255 255 255
1.454236 -0.256741 -1.205744 255 255 255
-1.893789 0.491725 -1.301934 255 255 255
-4.167808 -0.671185 0.818814 255 255 255
-2.802530 0.139028 1.280571 255 255 255
-3.488534 0.743571 2.222848 255 255 255
1.759832 0.297045 1.798863 255 255 255
-3.882012 0.075923 0.325053 255 255 255
1.458734 -0.257158 -1.198207 255 255 255
-4.171474 -0.650955 -0.131316 255 255 255
0.749845 0.315488 1.897050 255 255 255
0.902426 -0.489090 2.270514 255 255 255
1.610274 -0.143335 0.524477 255 255 255
1.506794 -0.337583 1.275049 255 255 255
1.204356 -0.099500 -1.209845 255 255 255
1.580666 -0.342321 -1.117753 255 255 255
1.349664 -0.241004 -1.198673 255 255 255
1.749834 0.279685 1.674304 255 255 255
1.253989 -0.227235 -1.206599 255 255 255
1.154366 -0.212891 -1.210289 255 255 255
-1.095728 -0.360942 1.774018 255 255 255
-4.208405 -0.689185 1.025770 255 255 255
1.481704 -0.514250 0.025299 255 255 255
-1.948264 0.035182 -0.397934 255 255 255
-3.908013 -0.195412 -0.043989 255 255 255
1.083125 -0.202743 -1.213046 255 255 255
1.054531 -0.198664 -1.213236 255 255 255
-3.395680 1.023334 2.218294 255 255 255
-0.853106 -0.333201 2.016013 255 255 255
-1.769008 0.709710 1.921951 255 255 255
1.012950 -0.306064 -1.211114 255 255 255
1.004720 -0.191609 -1.213992 255 255 255
0.954767 -0.184608 -1.215318 255 255 255
-1.293253 0.000023 2.303467 255 255 255
-2.184972 -0.257079 2.222666 255 255 255
-1.245146 0.040148 -1.272915 255 255 255
-2.986202 0.140264 1.694160 255 255 255
0.305664 0.002505 1.992045 255 255 255
-2.113017 -0.102293 1.659024 255 255 255
-1.356704 0.047720 -1.279060 255 255 255
-1.694568 0.070243 -1.284519 255 255 255
1.524960 -0.373276 -0.671012 255 255 255
-1.594891 -0.368225 -1.272715 255 255 255
-1.754976 0.075753 -1.233238 255 255 255
0.598440 0.192385 1.998035 255 255 255
-2.899576 1.200783 -1.346398 255 255 255
-0.051486 -0.401896 1.511813 255 255 255
-1.785879 0.077809 -1.230891 255 255 255
-1.825384 0.079899 -1.245744 255 255 255
-1.947971 0.086351 -1.292314 255 255 255
1.756314 0.314092 1.919768 255 255 255
-2.197568 0.101743 -1.302863 255 255 255
-1.945851 -0.406341 -1.281013 255 255 255
-3.914395 0.058790 1.320466 255 255 255
-2.189870 0.101406 -1.297578 255 255 255
-2.294001 -0.168764 -1.296816 255 255 255
-1.100485 -0.194246 2.292343 255 255 255
-2.246420 0.104737 -1.304249 255 255 255
-2.245134 -0.350629 1.297920 255 255 255
-2.246500 0.104889 -1.298684 255 255 255
-2.343958 0.110686 -1.306883 255 255 255
-3.341849 1.159630 2.208058 255 255 255
-2.492415 0.119614 -1.312991 255 255 255
-1.145217 -0.284292 2.305178 255 255 255
-2.705386 0.556507 1.244853 255 255 255
-3.763328 0.195160 -1.283394 255 255 255
1.468931 -0.510998 -0.125120 255 255 255
-2.544616 0.122701 -1.316548 255 255 255
-1.144042 0.627613 2.282589 255 255 255
1.528690 -0.265986 1.147719 255 255 255
-3.623410 0.594238 -1.273800 255 255 255
-2.800767 0.138271 1.310232 255 255 255
-1.190473 -0.282354 2.303486 255 255 255
-2.696399 0.131792 -1.319964 255 255 255
-3.518428 0.995256 1.415199 255 255 255
1.674385 -0.078033 -0.973334 255 255 255
-2.745890 0.134719 -1.322041 255 255 255
-2.794300 0.137619 -1.322127 255 255 255
1.248890 -0.866062 2.364802 255 255 255
1.794493 0.218842 -1.156217 255 255 255
-2.845694 0.140661 -1.323512 255 255 255
-2.896520 0.143654 -1.325277 255 255 255
-2.935605 0.145969 -1.325789 255 255 255
-3.442361 1.062380 -0.175140 255 255 255
-3.925397 -0.061321 -0.380494 255 255 255
1.631510 -0.080323 0.773100 255 255 255
-2.995062 0.149465 -1.327452 255 255 255
0.305084 0.074020 2.005041 255 255 255
-1.724445 0.857701 1.720426 255 255 255
1.534551 -0.365267 -0.424708 255 255 255
-3.093506 0.155272 -1.328497 255 255 255
-3.144973 0.158283 -1.329755 255 255 255
-3.244186 0.164093 -1.331233 255 255 255
-3.297586 0.167205 -1.332352 255 255 255
1.646706 0.227445 -0.658463 255 255 255
1.766304 0.336923 2.074584 255 255 255
-3.392661 -0.094044 1.580295 255 255 255
-1.693386 -0.150061 -0.324942 255 255 255
-3.443250 0.175651 -1.336318 255 255 255
-0.044271 0.219224 1.344541 255 255 255
-3.581520 0.716560 -0.975802 255 255 255
-3.494619 0.178631 -1.337241 255 255 255
-3.740503 0.192605 -1.354505 255 255 255
0.862190 -0.054542 1.996044 255 255 255
-3.759120 0.194142 -1.328403 255 255 255
0.950007 0.323627 1.978714 255 255 255
-4.080415 -0.376757 1.126233 255 255 255
1.644176 0.295650 -0.709577 255 255 255
-3.777620 0.196202 -1.270405 255 255 255
-0.457892 -0.074803 2.310442 255 255 255
-3.775543 0.196643 -1.236480 255 255 255
-3.781229 0.197269 -1.217997 255 255 255
-1.142270 0.168036 2.301465 255 255 255
0.362312 0.360799 2.019337 255 255 255
-3.780303 0.197892 -1.175228 255 255 255
1.463212 -0.468976 0.524966 255 255 255
-2.093305 0.626426 -1.315857 255 255 255
-3.785291 0.201679 -0.925309 255 255 255
-0.060758 -0.160745 1.353862 255 255 255
-2.342518 0.790141 -1.324379 255 255 255
-3.647546 0.195314 -0.809879 255 255 255
-3.749411 0.200985 -0.812993 255 255 255
-0.253942 -0.140141 1.334974 255 255 255
-3.783207 0.203001 -0.801973 255 255 255
0.145100 0.237610 1.315735 255 255 255
-3.574820 0.857545 1.176234 255 255 255
-1.645092 -0.368693 2.289211 255 255 255
-3.788076 0.203552 -0.775787 255 255 255
-3.692069 0.619834 1.974418 255 255 255
-3.791544 0.204257 -0.725640 255 255 255
1.142114 -0.405842 1.965286 255 255 255
-3.791733 0.204748 -0.675192 255 255 255
-0.135194 0.180247 1.332957 255 255 255
-0.945034 0.590029 2.288095 255 255 255
-3.760626 0.203643 -0.604146 255 255 255
-3.495973 0.847451 -1.362640 255 255 255
-3.548764 0.192303 -0.553894 255 255 255
-3.523822 0.191115 -0.529006 255 255 255
1.065664 -0.557867 -1.205288 255 255 255
0.736650 0.330655 1.977243 255 255 255
-3.800721 0.207126 -0.424762 255 255 255
-3.801272 0.207669 -0.325291 255 255 255
-3.539793 1.035168 1.924219 255 255 255
1.467547 -0.509341 -0.025430 255 255 255
-3.802160 0.207925 -0.274888 255 255 255
-0.131335 0.227998 1.333616 255 255 255
-2.044173 -0.047663 2.265143 255 255 255
0.203381 -0.563799 1.993651 255 255 255
1.095775 0.326569 2.013740 255 255 255
-2.075501 0.008261 -1.305576 255 255 255
-3.808003 0.208727 -0.075283 255 255 255
-1.800553 0.647661 1.391309 255 255 255
-3.809901 0.208865 -0.025386 255 255 255
-1.242505 -0.095925 2.303045 255 255 255
-3.821477 0.209503 0.017965 255 255 255
-3.543209 1.014851 1.625904 255 255 255
-1.789284 0.673784 1.623541 255 255 255
-0.303544 -0.338741 1.352202 255 255 255
-3.809707 0.208821 0.074593 255 255 255
-3.824482 0.209627 0.078204 255 255 255
-3.811936 0.208875 0.124641 255 255 255
-1.815768 0.634505 2.023344 255 255 255
-3.823540 0.209416 0.171538 255 255 255
0.507941 0.345208 1.990831 255 255 255
-1.856463 -0.545367 2.108829 255 255 255
1.142544 0.081679 2.032972 255 255 255
-3.813981 0.208749 0.223963 255 255 255
-3.496759 0.069452 0.023994 255 255 255
0.954444 0.088101 -1.225880 255 255 255
1.358615 0.341408 2.119174 255 255 255
-1.871919 0.498012 1.451733 255 255 255
-3.855326 0.076504 0.082786 255 255 255
1.343134 -0.004990 2.283526 255 255 255
-3.826214 0.209244 0.275703 255 255 255
-0.889607 -0.149721 1.787229 255 255 255
-3.816428 0.208269 0.374114 255 255 255
-1.149470 -0.265080 -1.248989 255 255 255
-3.343553 -0.095825 1.617031 255 255 255
-3.562002 0.457133 2.216361 255 255 255
-3.827641 0.208880 0.375444 255 255 255
-3.817932 0.207760 0.476228 255 255 255
-2.989833 0.142600 1.610938 255 255 255
1.572993 0.052403 1.977755 255 255 255
-1.445100 0.189476 -1.281838 255 255 255
-3.858305 0.075446 -0.324848 255 255 255
-3.831013 0.206941 0.674239 255 255 255
-3.835662 0.205684 0.825031 255 255 255
-3.045747 0.143308 1.718397 255 255 255
-1.295391 0.000738 2.291692 255 255 255
0.544130 0.198022 2.011241 255 255 255
-3.836691 0.205167 0.875656 255 255 255
1.481722 -0.441606 0.909882 255 255 255
-3.859367 0.075073 -0.374796 255 255 255
0.052991 -0.367952 2.272201 255 255 255
-3.839359 0.204721 0.925428 255 255 255
-3.840365 0.204153 0.975035 255 255 255
-3.861835 0.200955 1.275838 255 255 255
-0.664910 0.197724 2.295366 255 255 255
-1.779670 0.030055 -0.467980 255 255 255
-3.864104 0.200221 1.327477 255 255 255
1.305920 0.089840 2.277637 255 255 255
-3.865334 0.199483 1.374215 255 255 255
-3.875171 0.199140 1.425415 255 255 255
0.105035 -0.475915 1.994858 255 255 255
-3.864607 0.197618 1.474772 255 255 255
1.060881 -0.327202 2.162915 255 255 255
-3.875001 0.198248 1.473414 255 255 255
-3.876422 0.197424 1.521446 255 255 255
1.253175 -0.348542 2.062857 255 255 255
1.168217 0.061985 1.792285 255 255 255
-3.867983 0.197150 1.509984 255 255 255
-2.991525 -0.305268 1.277091 255 255 255
-3.862834 0.196447 1.530928 255 255 255
0.083838 0.158227 1.352640 255 255 255
1.405638 0.140414 -1.199484 255 255 255
-2.948328 0.148141 1.258575 255 255 255
-2.878576 0.144125 1.253436 255 255 255
-3.616074 0.587804 -0.927884 255 255 255
0.114736 -0.555151 2.006682 255 255 255
-1.195729 0.265126 2.286512 255 255 255
-2.845554 0.142314 1.246525 255 255 255
-3.884177 0.190445 1.875353 255 255 255
1.158769 0.262224 2.152564 255 255 255
-3.883051 0.188065 1.974590 255 255 255
-3.341309 -0.357247 1.627903 255 255 255
-3.110310 0.147584 1.706289 255 255 255
-2.879254 0.133265 1.708458 255 255 255
-3.735033 0.470890 1.174980 255 255 255
-2.861718 0.132501 1.696303 255 255 255
-4.026189 -0.223682 1.076322 255 255 255
-2.124043 0.097246 1.299634 255 255 255
-3.625047 0.715876 0.424895 255 255 255
-2.099338 0.095815 1.295435 255 255 255
-3.614365 0.713780 0.424822 255 255 255
-2.121508 0.096721 1.312957 255 255 255
-1.294141 0.561538 2.283884 255 255 255
-2.014626 0.089807 1.319171 255 255 255
-2.035078 0.081755 1.623371 255 255 255
-2.045300 0.079067 1.724523 255 255 255
-2.044437 0.077267 1.775525 255 255 255
1.398773 0.088100 2.332326 255 255 255
-2.044248 0.073783 1.874740 255 255 255
-2.595649 0.753577 -1.337038 255 255 255
1.712465 0.130498 1.024626 255 255 255
1.560136 -0.035379 1.972631 255 255 255
-3.897460 -0.058827 0.108519 255 255 255
-2.055274 0.067250 2.074982 255 255 255
-1.181089 0.543102 2.302990 255 255 255
1.797456 0.205959 -1.027045 255 255 255
-1.893997 0.408018 1.296198 255 255 255
-2.055243 0.063557 2.172712 255 255 255
-0.845674 0.483039 2.293856 255 255 255
-2.048597 0.059181 2.273640 255 255 255
-3.512971 0.962008 0.722030 255 255 255
-1.995654 0.055241 2.276225 255 255 255
-3.667141 0.460672 -0.780657 255 255 255
-1.944683 0.051619 2.273722 255 255 255
1.665223 0.300388 1.838150 255 255 255
-1.900080 0.048385 2.272636 255 255 255
1.456317 0.075706 -1.210662 255 255 255
-0.964694 0.147488 2.293152 255 255 255
-1.600218 -0.211228 -1.176442 255 255 255
-1.357436 0.033308 1.654684 255 255 255
-3.514552 0.840113 -1.076384 255 255 255
-1.334498 0.032294 1.637798 255 255 255
-2.884357 0.593717 -1.337973 255 255 255
-1.294554 0.029333 1.637361 255 255 255
1.654932 -0.029206 0.374575 255 255 255
-1.263269 0.026798 1.641866 255 255 255
-1.995112 -0.371684 2.283169 255 255 255
-3.960614 -0.082329 1.225016 255 255 255
-1.694720 0.032499 2.284811 255 255 255
-1.645656 0.028749 2.284824 255 255 255
-1.595773 0.024913 2.284646 255 255 255
1.006108 -0.477743 -1.194682 255 255 255
-1.445950 0.012980 2.289011 255 255 255
-1.396235 0.008929 2.290906 255 255 255
-1.245486 -0.022220 -1.273484 255 255 255
-1.669264 -0.315079 -0.851049 255 255 255
-1.261592 -0.002539 2.302741 255 255 255
-3.758703 0.478801 1.923652 255 255 255
-1.237296 -0.004548 2.302854 255 255 255
1.539753 -0.306117 0.324707 255 255 255
1.225770 0.297505 1.847621 255 255 255
-1.094763 -0.016055 2.293674 255 255 255
1.713119 0.118664 -0.870163 255 255 255
-1.045682 -0.020291 2.294685 255 255 255
-1.044505 -0.020893 2.305151 255 255 255
1.566691 -0.119289 2.320643 255 255 255
1.733989 0.047317 -0.793151 255 255 255
-1.003848 -0.290568 2.307275 255 255 255
-0.895940 -0.033433 2.296758 255 255 255
1.475369 -0.406945 1.326906 255 255 255
-0.700289 -0.051142 2.297359 255 255 255
-0.843909 -0.038654 2.308715 255 255 255
-0.796628 -0.042294 2.296369 255 255 255
-3.683496 0.602911 1.225290 255 255 255
-0.702174 -0.051528 2.308480 255 255 255
1.673552 -0.029662 -0.372159 255 255 255
-0.674226 -0.053543 2.297167 255 255 255
-0.668140 -0.054549 2.305865 255 255 255
-3.717011 0.466860 0.769915 255 255 255
-4.034466 -0.343321 0.074977 255 255 255
1.511485 -0.431702 -0.674829 255 255 255
-0.601860 -0.056602 2.224237 255 255 255
0.698324 -0.037793 2.006857 255 255 255
-0.495096 -0.071272 2.311972 255 255 255
1.578663 -0.134570 1.229230 255 255 255
0.988178 -0.301315 -1.210305 255 255 255
-0.246992 -0.046480 1.364638 255 255 255
1.689137 0.142650 -1.172457 255 255 255
-2.747028 0.679175 -1.339772 255 255 255
-0.193594 -0.090736 1.356829 255 255 255
-0.151207 -0.078298 1.344097 255 255 255
-0.090914 -0.061160 1.343099 255 255 255
-0.017929 -0.069378 1.352769 255 255 255
0.653690 0.113936 1.994190 255 255 255
-4.251950 -0.748400 1.676953 255 255 255
0.102028 0.251289 1.337362 255 255 255
0.108145 0.207450 1.331372 255 255 255
0.367304 0.390469 2.175404 255 255 255
0.361421 0.371170 2.072861 255 255 255
-2.060644 0.009098 -1.276859 255 255 255
-2.068131 -0.025374 1.926705 255 255 255
0.369099 0.354998 1.991866 255 255 255
-1.753963 -0.091166 -0.278133 255 255 255
0.567182 0.195974 2.008737 255 255 255
0.404978 0.354509 2.003119 255 255 255
-2.793626 0.463580 1.260154 255 255 255
1.673384 -0.079217 -0.925214 255 255 255
1.457525 0.278221 2.332553 255 255 255
1.639485 -0.089790 -0.074347 255 255 255
0.656125 0.114624 2.004766 255 255 255
0.404447 0.352385 1.991826 255 255 255
0.449100 0.351332 2.002745 255 255 255
-3.496674 0.946105 -0.077525 255 255 255
-3.034785 0.743433 -1.347409 255 255 255
0.487524 0.347461 1.995880 255 255 255
-3.872055 0.075761 -0.319767 255 255 255
0.603473 0.339696 1.991223 255 255 255
-1.945788 -0.478365 2.285110 255 255 255
0.655363 0.337461 1.993736 255 255 255
0.653642 0.339317 2.003264 255 255 255
0.702237 0.336842 2.002556 255 255 255
0.706263 0.334929 1.993181 255 255 255
1.697300 0.026648 -0.174908 255 255 255
-0.089882 -0.437512 1.658776 255 255 255
1.676462 0.026370 0.176710 255 255 255
0.749564 0.318866 1.915529 255 255 255
0.789232 0.321137 1.936468 255 255 255
-2.151053 -0.329520 -1.187131 255 255 255
1.056284 0.326178 2.007224 255 255 255
-3.947384 -0.067506 0.725141 255 255 255
1.217370 0.351753 2.172528 255 255 255
1.719398 0.041580 -0.675268 255 255 255
1.254083 0.349710 2.163454 255 255 255
-0.943258 0.321537 2.304609 255 255 255
1.674393 0.041287 0.675095 255 255 255
1.252425 0.327165 2.028778 255 255 255
1.372539 0.453939 1.802810 255 255 255
-3.346913 -0.093576 1.574330 255 255 255
1.486924 -0.479237 -0.572726 255 255 255
-1.876034 0.006621 -1.198134 255 255 255
1.510828 0.375388 2.330563 255 255 255
1.239184 0.292175 1.814771 255 255 255
1.477064 -0.460539 0.278206 255 255 255
1.258965 0.288154 1.789601 255 255 255
-0.294941 0.404393 2.315121 255 255 255
1.510733 -0.409528 0.124820 255 255 255
1.317103 0.290948 1.805995 255 255 255
1.341925 0.294184 1.825788 255 255 255
-3.510042 0.959767 0.674824 255 255 255
1.754891 0.286698 1.724859 255 255 255
1.747095 0.272965 1.624712 255 255 255
-1.095780 -0.203416 -1.249022 255 255 255
1.745159 0.266303 1.574607 255 255 255
1.683753 0.060477 1.022078 255 255 255
0.284654 -0.502263 2.003130 255 255 255
1.745537 0.253508 1.474682 255 255 255
1.742068 0.245460 1.411045 255 255 255
1.728916 0.233356 1.315176 255 255 255
1.737447 0.229055 1.274871 255 255 255
-1.692133 -0.254317 -0.889147 255 255 255
-3.372268 1.310985 0.425238 255 255 255
1.580831 -0.321554 -0.621659 255 255 255
1.736919 0.223329 1.224754 255 255 255
1.736853 0.217800 1.174826 255 255 255
1.736189 0.212507 1.125940 255 255 255
-1.806135 -0.165666 -0.476635 255 255 255
1.037322 -0.238516 2.164444 255 255 255
-0.695724 -0.243285 1.882673 255 255 255
-1.717493 -0.003065 -1.279990 255 255 255
1.727803 0.211312 1.118922 255 255 255
1.527170 -0.392137 -0.985441 255 255 255
-0.564808 -0.271385 1.613202 255 255 255
1.735251 0.202184 1.025778 255 255 255
-4.178103 -0.569034 1.574383 255 255 255
1.726192 0.197915 0.987656 255 255 255
-1.715065 0.027106 -0.528424 255 255 255
1.568480 -0.320966 -0.674534 255 255 255
-3.500035 0.949229 -0.322710 255 255 255
1.627584 -0.088978 -0.124261 255 255 255
1.781158 0.214796 0.083401 255 255 255
0.962318 -0.511930 2.356033 255 255 255
1.487158 -0.463460 0.273742 255 255 255
1.726073 0.195540 0.962911 255 255 255
1.733636 0.192434 0.924567 255 255 255
1.624461 -0.088798 0.126370 255 255 255
1.725853 0.191983 0.924916 255 255 255
-3.566114 0.717325 -1.127321 255 255 255
1.726362 0.187636 0.876264 255 255 255
0.095779 0.106544 1.325199 255 255 255
-3.603398 -0.056732 -0.384827 255 255 255
0.754274 -0.269780 1.997589 255 255 255
1.734198 0.187959 0.874234 255 255 255
-0.044373 0.028284 1.338394 255 255 255
1.734857 0.183728 0.824269 255 255 255
1.736501 0.179848 0.775261 255 255 255
1.574779 -0.122160 2.175575 255 255 255
0.900435 0.252010 2.010339 255 255 255
1.737311 0.176109 0.726093 255 255 255
1.526924 -0.363565 -0.426102 255 255 255
-0.845544 -0.124715 2.306775 255 255 255
-1.123421 -0.103516 2.297025 255 255 255
1.736286 0.172422 0.676469 255 255 255
1.734678 0.168888 0.626458 255 255 255
-4.253018 -0.738770 1.574860 255 255 255
1.733181 0.165537 0.575589 255 255 255
-0.332821 0.234513 2.230139 255 255 255
-4.068390 -0.353151 0.545786 255 255 255
1.723068 0.159071 0.474943 255 255 255
-0.245938 0.481333 2.307818 255 255 255
1.481060 -0.392839 2.179817 255 255 255
1.732771 0.159761 0.473600 255 255 255
1.723426 0.156626 0.424557 255 255 255
1.723662 0.154488 0.375479 255 255 255
1.590996 -0.136297 1.174878 255 255 255
0.655303 -0.487218 2.012155 255 255 255
-3.481799 1.148544 1.681903 255 255 255
-3.676123 0.464068 -1.267162 255 255 255
1.381229 -0.652587 -1.189840 255 255 255
1.732785 0.153288 0.325246 255 255 255
-1.774232 0.761251 2.260163 255 255 255
-2.172182 -0.200841 1.692778 255 255 255
1.724018 0.152543 0.324439 255 255 255
1.491056 0.030396 1.584553 255 255 255
-2.045501 0.524502 -1.308994 255 255 255
-3.414676 1.076973 -0.926371 255 255 255
1.472476 -0.120681 1.556459 255 255 255
1.724697 0.150966 0.275405 255 255 255
-1.957808 -0.111478 -0.586031 255 255 255
1.645507 0.071041 -1.175096 255 255 255
1.713331 0.259083 2.221835 255 255 255
1.733159 0.151613 0.273770 255 255 255
-3.654214 -0.183336 -0.172723 255 255 255
1.733966 0.150310 0.224095 255 255 255
1.734551 0.149238 0.173442 255 255 255
-2.698565 0.014951 1.605453 255 255 255
1.623385 -0.081924 0.675410 255 255 255
-3.648457 0.051452 -1.345511 255 255 255
1.726197 0.148579 0.175788 255 255 255
-3.093445 0.881780 -1.354029 255 255 255
-3.292528 -0.095972 1.622204 255 255 255
1.734779 0.148430 0.123584 255 255 255
1.524835 -0.370994 -0.624092 255 255 255
1.735889 0.147991 0.075689 255 255 255
-1.712936 0.748388 2.268980 255 255 255
1.727544 0.147272 0.074478 255 255 255
0.854381 -0.276304 -1.207237 255 255 255
1.719505 0.205201 1.774548 255 255 255
1.425909 -0.551004 0.867391 255 255 255
1.729474 0.147155 -0.023230 255 255 255
-3.735440 0.471205 1.224441 255 255 255
1.737584 0.147852 -0.025817 255 255 255
-3.745123 0.473270 1.374857 255 255 255
1.737956 0.148171 -0.076291 255 255 255
1.738892 0.148798 -0.125056 255 255 255
1.743551 0.152526 -0.275491 255 255 255
-3.722546 0.466816 0.523850 255 255 255
1.745342 0.154322 -0.325467 255 255 255
1.526949 -0.362054 -0.377547 255 255 255
1.748134 0.155603 -0.354132 255 255 255
-3.686586 0.462449 -0.574544 255 255 255
1.050991 -0.457905 1.868316 255 255 255
1.698143 0.152010 -0.365448 255 255 255
1.671263 0.149122 -0.347803 255 255 255
1.532873 -0.319912 0.822877 255 255 255
1.554027 0.140883 -0.375465 255 255 255
1.496320 0.136682 -0.383352 255 255 255
1.475184 0.135308 -0.389384 255 255 255
-4.073701 -0.355946 0.630304 255 255 255
1.484156 0.140120 -0.465643 255 255 255
1.512366 -0.409449 0.075024 255 255 255
1.419705 -0.603906 0.790219 255 255 255
1.456882 0.138880 -0.479339 255 255 255
1.457422 0.140691 -0.507957 255 255 255
1.510398 0.147211 -0.547993 255 255 255
1.618524 -0.145527 -0.024729 255 255 255
-2.131100 -0.119089 1.875439 255 255 255
1.715758 -0.007061 -1.074234 255 255 255
-1.545736 0.312190 2.280860 255 255 255
1.552661 0.151701 -0.568896 255 255 255
1.616472 -0.058611 1.474872 255 255 255
-3.516980 0.987360 1.282562 255 255 255
-1.856640 0.652496 -1.301882 255 255 255
-1.795604 -0.579480 2.290918 255 255 255
1.702510 0.166619 -0.627928 255 255 255
-1.294337 -0.562269 2.295610 255 255 255
1.486650 -0.365352 1.775101 255 255 255
1.774597 0.178635 -0.724810 255 255 255
1.775284 0.182417 -0.774158 255 255 255
-1.128466 -0.103716 2.303989 255 255 255
-0.958592 -0.162110 1.932870 255 255 255
1.782591 0.183062 -0.775985 255 255 255
1.793292 0.200814 -0.975445 255 255 255
1.220740 -0.857902 2.359131 255 255 255
1.728978 0.245477 1.415584 255 255 255
1.764040 0.208391 -1.071342 255 255 255
-0.277806 -0.092781 1.368252 255 255 255
1.313162 -0.668754 2.320373 255 255 255
-3.680294 0.462118 -0.724573 255 255 255
1.761046 0.205682 -1.046059 255 255 255
1.802242 0.216832 -1.132923 255 255 255
-0.895417 0.581256 2.290441 255 255 255
1.127843 0.256477 2.104042 255 255 255
-3.612827 0.050272 -1.354586 255 255 255
-1.934626 0.007032 -1.231235 255 255 255
-3.640441 0.459857 -1.305527 255 255 255
1.741729 0.214460 -1.141582 255 255 255
-1.495385 0.402662 2.283331 255 255 255
1.700630 0.214903 -1.165379 255 255 255
1.666376 0.214543 -1.177564 255 255 255
-3.946899 -0.068633 0.774596 255 255 255
1.655209 0.217561 -1.208879 255 255 255
1.424939 -0.524804 0.625401 255 255 255
1.255288 -0.432478 2.031621 255 255 255
1.604119 0.215161 -1.208747 255 255 255
1.620763 -0.060655 1.424889 255 255 255
1.514273 -0.463903 -1.073781 255 255 255
1.254129 0.211249 1.794941 255 255 255
1.554477 0.212889 -1.208380 255 255 255
-2.100364 -0.323659 1.919205 255 255 255
-3.468746 0.944790 -0.530217 255 255 255
1.417890 -0.489909 1.532564 255 255 255
-1.998958 0.007440 -1.268467 255 255 255
-0.513536 -0.152473 2.308060 255 255 255
-0.894683 -0.384659 2.308701 255 255 255
1.403561 0.206629 -1.207803 255 255 255
-2.822704 0.696010 -1.341538 255 255 255
-4.117130 -0.506336 0.624471 255 255 255
-1.673772 -0.313872 -0.836242 255 255 255
1.152381 -0.322824 1.927736 255 255 255
1.304993 0.203514 -1.210709 255 255 255
-0.140449 -0.131212 1.343341 255 255 255
-1.096974 0.527827 2.302996 255 255 255
1.052772 -0.526266 2.346614 255 255 255
1.254848 0.202351 -1.213837 255 255 255
1.205570 0.201464 -1.217678 255 255 255
1.105146 0.199249 -1.219126 255 255 255
1.055392 0.198248 -1.218819 255 255 255
1.005402 0.197696 -1.220384 255 255 255
1.572931 0.283753 1.736367 255 255 255
-1.834414 -0.037039 -0.536464 255 255 255
0.997162 0.196539 -1.213475 255 255 255
-0.595649 0.530355 2.295128 255 255 255
-0.081297 -0.377559 1.432863 255 255 255
0.953022 0.196442 -1.216281 255 255 255
1.183623 0.147341 1.896673 255 255 255
1.476604 0.447098 2.188933 255 255 255
-2.999439 0.037495 1.255970 255 255 255
0.903874 0.197491 -1.225519 255 255 255
0.853944 0.197730 -1.228075 255 255 255
0.800773 0.180697 -1.225820 255 255 255
0.003041 -0.434853 1.611581 255 255 255
0.803623 0.198101 -1.229983 255 255 255
-1.945730 0.502869 -1.303749 255 255 255
1.532273 -0.323930 0.918355 255 255 255
-0.645267 -0.311088 2.309685 255 255 255
1.489970 -0.491952 -0.724992 255 255 255
0.345940 -0.001504 2.004093 255 255 255
0.761961 0.198371 -1.230236 255 255 255
-0.697323 -0.305831 2.297481 255 255 255
-1.194744 0.476706 -1.279730 255 255 255
-1.296485 0.503121 -1.287433 255 255 255
-1.596211 0.661062 -1.301611 255 255 255
-1.345003 0.515237 -1.286284 255 255 255
-1.125904 -0.194390 2.306237 255 255 255
-1.493487 0.554053 -1.290571 255 255 255
-1.545256 0.568070 -1.294214 255 255 255
1.004752 -0.292231 1.821943 255 255 255
1.709304 0.100359 0.574709 255 255 255
-1.544273 0.568732 -1.301554 255 255 255
-2.345818 0.016915 -1.305966 255 255 255
-3.573941 0.721676 -1.230960 255 255 255
-1.595628 0.581446 -1.294928 255 255 255
1.008597 -0.443385 1.821375 255 255 255
0.584877 -0.549056 1.993414 255 255 255
-1.637108 0.592418 -1.294600 255 255 255
-1.637520 0.593271 -1.300742 255 255 255
-1.689665 0.607256 -1.301274 255 255 255
-0.751988 -0.130627 2.288812 255 255 255
-1.788903 0.634169 -1.302751 255 255 255
-1.796590 0.635407 -1.295330 255 255 255
1.699673 0.027401 -0.224959 255 255 255
-1.851495 0.650474 -1.296370 255 255 255
1.676741 0.078017 1.274487 255 255 255
-1.946842 0.677527 -1.304562 255 255 255
-2.111630 0.448401 -1.309332 255 255 255
-1.930469 0.672407 -1.298924 255 255 255
-0.306456 0.403012 2.296842 255 255 255
-3.465368 0.949304 -0.722622 255 255 255
-1.995131 0.691302 -1.308772 255 255 255
-2.017424 0.697599 -1.309998 255 255 255
1.248967 -0.657783 1.432221 255 255 255
1.537601 -0.407933 -1.177292 255 255 255
-2.045445 0.705524 -1.311464 255 255 255
-3.463689 0.954100 -0.870347 255 255 255
-2.133416 -0.153459 2.276589 255 255 255
-2.094370 0.719313 -1.313238 255 255 255
1.684133 -0.030683 -0.327839 255 255 255
-2.144419 0.733592 -1.316263 255 255 255
1.184389 0.423168 2.083089 255 255 255
-2.243901 0.762094 -1.322216 255 255 255
-1.666319 -0.277232 -0.469829 255 255 255
-3.521488 0.953294 -0.165512 255 255 255
-2.292903 0.775962 -1.322799 255 255 255
-2.092245 -0.154239 2.274096 255 255 255
1.019434 -0.068112 2.133232 255 255 255
-2.393301 0.804866 -1.327812 255 255 255
-1.192192 0.543439 2.290889 255 255 255
-2.447231 0.820598 -1.332074 255 255 255
-1.446890 0.327875 -1.288946 255 255 255
1.049165 -0.718638 2.356360 255 255 255
1.440292 -0.615743 -0.824954 255 255 255
-2.644164 0.877474 -1.338060 255 255 255
-1.795545 0.470648 -1.296935 255 255 255
-1.092782 -0.106190 2.303757 255 255 255
-4.212038 -0.699676 1.172824 255 255 255
-2.690951 0.891082 -1.339767 255 255 255
-2.716125 0.898437 -1.340953 255 255 255
-2.747044 0.907441 -1.341948 255 255 255
-2.875769 0.945205 -1.348207 255 255 255
-2.898489 0.951788 -1.348107 255 255 255
-0.928995 -0.136537 1.685042 255 255 255
-2.945760 0.965766 -1.351170 255 255 255
-2.988633 0.977990 -1.348096 255 255 255
1.647358 0.100506 -0.624789 255 255 255
1.514049 -0.455333 -0.978071 255 255 255
0.368936 -0.004128 1.991259 255 255 255
-3.036600 0.992353 -1.352980 255 255 255
-3.096566 1.009986 -1.354705 255 255 255
1.487204 -0.416497 0.523104 255 255 255
-3.247202 1.054246 -1.356925 255 255 255
-3.296248 1.068854 -1.359783 255 255 255
-3.388880 1.093446 -1.322807 255 255 255
-3.402804 1.090884 -1.224982 255 255 255
0.225418 0.010993 1.994568 255 255 255
-3.403875 1.087955 -1.174773 255 255 255
-0.847359 -0.135959 1.641856 255 255 255
-1.899980 -0.305760 -1.174425 255 255 255
-1.859553 0.486114 1.324854 255 255 255
-1.845038 -0.313912 -1.274734 255 255 255
-3.421563 1.083776 -1.015411 255 255 255
-0.996088 0.239341 2.293491 255 255 255
-3.412789 1.078966 -0.975453 255 255 255
-3.421979 1.081697 -0.974857 255 255 255
-3.415264 1.074663 -0.876215 255 255 255
1.734855 0.090197 -0.276051 255 255 255
-3.423625 1.077016 -0.872640 255 255 255
-0.793846 -0.386139 2.292833 255 255 255
-3.415883 1.072482 -0.825862 255 255 255
-3.424311 1.074992 -0.824909 255 255 255
-3.416869 1.070553 -0.775651 255 255 255
-1.040804 0.517682 2.302006 255 255 255
-1.974680 0.265303 2.264657 255 255 255
-3.426942 1.071517 -0.725312 255 255 255
-3.416978 1.068461 -0.724658 255 255 255
-3.426803 1.069470 -0.673741 255 255 255
-3.427544 1.067907 -0.624272 255 255 255
1.472100 -0.410249 1.374521 255 255 255
-3.418695 1.063783 -0.582214 255 255 255
-3.429318 1.066798 -0.575017 255 255 255
-3.431846 1.066026 -0.524759 255 255 255
-2.344936 0.491966 -1.319964 255 255 255
0.115493 -0.261856 2.014774 255 255 255
1.567108 0.062482 2.117841 255 255 255
-3.418676 1.062548 -0.543376 255 255 255
0.158267 0.023996 2.331145 255 255 255
-1.045811 -0.559962 2.294628 255 255 255
-3.435016 1.064340 -0.424981 255 255 255
-2.074587 -0.005197 1.574444 255 255 255
1.682416 0.059532 -1.007209 255 255 255
-2.137915 -0.135678 2.075335 255 255 255
-3.437801 1.063082 -0.324690 255 255 255
1.479128 -0.355069 1.638840 255 255 255
0.558562 0.195244 1.997111 255 255 255
-3.482727 1.198437 2.205874 255 255 255
-3.438847 1.062556 -0.274458 255 255 255
-2.145003 -0.144157 2.174789 255 255 255
-1.955145 0.252948 1.424325 255 255 255
-3.440378 1.062329 -0.224836 255 255 255
-3.508694 0.949573 -0.125111 255 255 255
1.492861 -0.467159 -0.324986 255 255 255
1.539193 -0.361269 -0.224716 255 255 255
-3.443840 1.062413 -0.125247 255 255 255
-3.447050 1.062978 -0.024827 255 255 255
-3.447381 1.063080 0.025329 255 255 255
-1.824279 0.395774 -1.303738 255 255 255
-3.450162 1.064078 0.075097 255 255 255
-3.624474 0.589723 -0.971672 255 255 255
0.962480 -0.547583 2.031842 255 255 255
0.662042 -0.534905 1.864393 255 255 255
-0.843510 0.484171 2.303835 255 255 255
1.631945 -0.037983 2.039723 255 255 255
-3.451973 1.064918 0.124977 255 255 255
-3.635184 -0.055826 -0.259002 255 255 255
-3.452817 1.065601 0.175083 255 255 255
-0.926457 0.495955 2.289288 255 255 255
-2.081723 -0.018831 1.825275 255 255 255
1.180475 0.176785 2.171568 255 255 255
-3.456055 1.068700 0.324953 255 255 255
-3.457449 1.071219 0.424722 255 255 255
-3.458650 1.072843 0.474810 255 255 255
-3.460314 1.076265 0.574720 255 255 255
-3.397054 1.097261 -1.342617 255 255 255
-1.823918 0.631183 1.979945 255 255 255
1.011000 -0.420101 -1.197451 255 255 255
-3.461564 1.078305 0.624696 255 255 255
1.101388 -0.322614 -1.207218 255 255 255
-3.462539 1.080397 0.674745 255 255 255
-3.471490 1.082851 0.667241 255 255 255
-0.195277 -0.196728 1.355712 255 255 255
-3.462315 1.082251 0.724640 255 255 255
-3.462729 1.084483 0.775796 255 255 255
-3.472426 1.087092 0.767859 255 255 255
-0.300374 -0.284898 1.339382 255 255 255
-1.830589 -0.037992 -0.564448 255 255 255
-3.463363 1.086847 0.825385 255 255 255
-1.294857 -0.146743 -1.267183 255 255 255
-3.472503 1.091824 0.873156 255 255 255
-1.893626 0.244153 -1.296640 255 255 255
-1.878897 -0.219170 -1.113263 255 255 255
-3.463013 1.089050 0.875198 255 255 255
-0.341547 0.494126 2.306427 255 255 255
-3.463528 1.091666 0.925494 255 255 255
-3.504081 0.949699 -0.276721 255 255 255
-3.472381 1.099500 1.023734 255 255 255
-0.544858 -0.305377 1.482464 255 255 255
-3.466521 1.098155 1.031268 255 255 255
-1.244274 -0.279064 2.293440 255 255 255
-3.463783 1.099872 1.076097 255 255 255
-3.472649 1.102381 1.073553 255 255 255
-1.203386 -0.024169 -1.273144 255 255 255
-3.464105 1.102871 1.125390 255 255 255
1.713542 0.126580 0.975248 255 255 255
-3.473110 1.105519 1.124694 255 255 255
-3.474630 1.112278 1.225875 255 255 255
-1.181726 0.344956 -1.282207 255 255 255
-3.447302 -0.229581 1.618873 255 255 255
-3.478392 1.116741 1.276660 255 255 255
1.483179 -0.408015 1.320718 255 255 255
-3.482883 1.121414 1.325749 255 255 255
-2.334321 -0.454098 1.297047 255 255 255
1.706148 0.111850 0.774401 255 255 255
1.444109 -0.558879 -0.075178 255 255 255
-3.484619 1.125379 1.374846 255 255 255
-2.937216 0.036384 1.239727 255 255 255
-3.484959 1.132842 1.474863 255 255 255
-1.395073 -0.081639 -1.272485 255 255 255
-3.479018 1.138859 1.574202 255 255 255
-3.478309 1.142750 1.624621 255 255 255
-1.794791 0.310469 -1.288988 255 255 255
-3.467110 1.139633 1.626172 255 255 255
-1.545413 0.214714 2.281700 255 255 255
-0.482366 0.091833 2.222913 255 255 255
-3.465843 1.146367 1.710381 255 255 255
-3.467778 1.148468 1.728227 255 255 255
1.542855 -0.391615 -0.925522 255 255 255
1.254339 -0.043115 -1.210220 255 255 255
-3.626973 0.588859 -0.874085 255 255 255
-3.486003 1.162363 1.826015 255 255 255
1.537093 -0.358801 0.024578 255 255 255
0.808232 -0.427605 -1.196342 255 255 255
-3.928235 0.056108 1.425026 255 255 255
0.004893 0.022875 1.332902 255 255 255
1.496999 -0.369817 0.724401 255 255 255
-3.484936 1.166438 1.874018 255 255 255
-3.479763 1.174413 1.974339 255 255 255
-3.479155 1.179193 2.025392 255 255 255
-3.611759 0.712364 0.324699 255 255 255
-4.174514 -0.651409 0.128044 255 255 255
-3.624384 0.714836 0.323649 255 255 255
1.533947 -0.370774 -0.573423 255 255 255
1.718402 -0.004612 -1.127877 255 255 255
-3.477889 1.183572 2.073308 255 255 255
-3.488495 0.951213 -0.575035 255 255 255
-3.466149 1.180349 2.074063 255 255 255
1.623239 -0.145792 -0.173812 255 255 255
1.534848 -0.367076 -0.475128 255 255 255
-3.479399 1.194011 2.172080 255 255 255
1.487398 -0.400990 1.222201 255 255 255
-1.446470 -0.216153 -1.269824 255 255 255
-1.790878 -0.091776 -0.225276 255 255 255
-3.638104 0.068940 -0.527539 255 255 255
-3.489070 1.198560 2.190056 255 255 255
1.576449 -0.129179 1.668162 255 255 255
-3.393685 1.173668 2.205315 255 255 255
1.510292 -0.335402 1.225037 255 255 255
-3.306237 1.150666 2.215984 255 255 255
-3.287212 1.144913 2.211241 255 255 255
-1.945529 -0.158909 2.282515 255 255 255
1.252492 -0.347017 2.043964 255 255 255
-1.898507 0.664172 1.303879 255 255 255
-2.138462 -0.409334 -1.136193 255 255 255
-1.804669 0.637541 1.294811 255 255 255
-3.722041 0.037071 1.819897 255 255 255
-1.796853 0.638685 1.323251 255 255 255
-3.072969 -0.427816 1.267579 255 255 255
-1.792677 0.643528 1.374249 255 255 255
-1.784637 0.645657 1.410040 255 255 255
-1.790603 0.649636 1.429753 255 255 255
-3.587345 0.712639 -0.725584 255 255 255
-1.786047 0.653961 1.474774 255 255 255
-3.892641 0.069757 0.825037 255 255 255
-2.225447 -0.377422 1.528320 255 255 255
-1.785147 0.659950 1.524469 255 255 255
-1.779120 0.691377 1.773725 255 255 255
-3.988740 -0.092394 1.473885 255 255 255
-1.776038 0.695281 1.807544 255 255 255
-1.780057 0.699781 1.832605 255 255 255
-1.662158 -0.310232 -0.818185 255 255 255
-3.575650 0.847653 0.878870 255 255 255
-1.765621 0.697283 1.840411 255 255 255
1.530289 -0.441479 -0.748941 255 255 255
-2.194531 -0.375781 2.281488 255 255 255
-1.780270 0.705752 1.874683 255 255 255
-1.775371 0.726140 2.024516 255 255 255
-1.766642 0.724442 2.027311 255 255 255
-1.775801 0.749758 2.182316 255 255 255
-3.533677 0.832633 -0.674999 255 255 255
-1.859042 0.517118 1.724332 255 255 255
-1.767594 0.744941 2.163299 255 255 255
-1.767341 0.748560 2.187597 255 255 255
-2.093368 -0.082001 1.374480 255 255 255
-3.497227 -0.095320 1.597508 255 255 255
-1.767050 0.754790 2.228933 255 255 255
-1.745540 0.755195 2.264197 255 255 255
-1.144794 -0.267409 -1.263776 255 255 255
-1.817929 0.597589 1.693837 255 255 255
-1.481626 0.657614 2.028255 255 255 255
-1.611001 0.719446 2.233266 255 255 255
-2.111748 -0.152763 2.263063 255 255 255
1.530862 -0.286643 1.716800 255 255 255
-1.635064 0.730238 2.266881 255 255 255
1.474492 -0.530438 -1.139885 255 255 255
-3.462765 0.068773 0.031893 255 255 255
-1.593971 0.720983 2.267151 255 255 255
-1.502002 0.700713 2.268641 255 255 255
-1.478835 0.695388 2.267274 255 255 255
1.385645 -0.451461 1.991183 255 255 255
-3.709366 0.464561 0.124537 255 255 255
1.468901 -0.379553 2.021926 255 255 255
-1.445255 0.688737 2.271455 255 255 255
1.489514 -0.468364 -0.374978 255 255 255
1.424026 -0.533981 0.721325 255 255 255
-1.394260 0.678283 2.274935 255 255 255
-1.892844 -0.077178 -1.287201 255 255 255
-1.344521 0.668363 2.279109 255 255 255
-0.587306 -0.301484 2.221587 255 255 255
-1.294166 0.658107 2.281175 255 255 255
1.645823 0.097988 -0.579711 255 255 255
1.678969 0.025289 -0.023975 255 255 255
-1.231227 0.644623 2.278672 255 255 255
-1.193314 0.637296 2.281107 255 255 255
-1.045040 0.608643 2.285643 255 255 255
1.316559 -0.384459 1.430107 255 255 255
-3.541445 1.017747 1.675891 255 255 255
1.435972 -0.481289 1.422038 255 255 255
-0.977561 0.595777 2.286044 255 255 255
-0.929678 0.589730 2.302300 255 255 255
-1.094174 -0.399028 1.607306 255 255 255
-0.891844 0.582813 2.302579 255 255 255
-0.845141 0.572481 2.292460 255 255 255
-0.795795 0.563827 2.293236 255 255 255
-2.545246 0.634361 -1.332844 255 255 255
1.406323 -0.187264 1.483221 255 255 255
-0.700585 0.549410 2.304236 255 255 255
-0.682024 0.544469 2.294565 255 255 255
0.254169 -0.495789 1.994121 255 255 255
-0.643620 0.538085 2.294597 255 255 255
-0.545552 0.524464 2.306131 255 255 255
-0.545764 0.522527 2.295771 255 255 255
-0.844210 0.219916 2.292781 255 255 255
-0.498107 0.515176 2.296089 255 255 255
-0.151586 0.185966 1.363201 255 255 255
-0.444539 0.509164 2.307027 255 255 255
-2.215520 -0.376150 1.524632 255 255 255
-0.685727 -0.137830 2.310031 255 255 255
-0.395670 0.502259 2.308494 255 255 255
-0.445093 0.424365 2.312544 255 255 255
-0.363030 0.498026 2.310909 255 255 255
1.658762 0.031399 1.724737 255 255 255
0.046891 -0.405045 2.044061 255 255 255
-0.341874 0.492276 2.296616 255 255 255
-3.523530 0.953933 0.176543 255 255 255
-4.211366 -0.702290 1.210028 255 255 255
-3.695431 0.463112 -0.375549 255 255 255
-0.242326 0.478603 2.296228 255 255 255
-0.987767 -0.289197 2.292784 255 255 255
-0.218918 0.476832 2.302987 255 255 255
-4.014095 -0.221074 1.024732 255 255 255
-0.094275 0.271408 1.330683 255 255 255
-0.943650 0.685313 2.301889 255 255 255
-0.056129 0.270948 1.352340 255 255 255
0.003493 0.263898 1.351471 255 255 255
0.042319 0.259617 1.351133 255 255 255
-1.044168 -0.199144 2.307739 255 255 255
-0.000284 -0.116295 1.321872 255 255 255
-3.611837 0.589961 -1.125550 255 255 255
-1.044236 -0.376779 2.293944 255 255 255
0.006170 -0.114833 1.297355 255 255 255
0.120783 -0.209180 2.225060 255 255 255
-3.937553 0.035294 2.025205 255 255 255
0.129415 -0.198350 2.090628 255 255 255
0.131602 -0.196978 2.072169 255 255 255
-1.488872 -0.568758 2.302094 255 255 255
1.005499 0.142432 -1.226658 255 255 255
0.154201 -0.194197 2.010924 255 255 255
1.377932 -0.450029 1.990772 255 255 255
0.203961 -0.199614 2.006725 255 255 255
0.237009 -0.202334 1.993229 255 255 255
-0.703199 -0.186785 2.013385 255 255 255
1.528451 -0.403508 -1.143420 255 255 255
-2.454414 0.020608 -1.296766 255 255 255
1.687189 -0.033511 0.012867 255 255 255
-2.243850 0.013834 -1.303338 255 255 255
0.258455 -0.205113 1.995714 255 255 255
0.351781 -0.216404 1.994804 255 255 255
1.460847 -0.512882 0.274819 255 255 255
-3.472955 0.967707 -1.125177 255 255 255
0.403684 -0.222898 1.994915 255 255 255
1.761753 0.243515 -0.706561 255 255 255
-3.537758 0.068033 -0.426501 255 255 255
0.458146 -0.229890 1.995681 255 255 255
0.504628 -0.236907 2.007534 255 255 255
0.506588 -0.236138 1.995517 255 255 255
0.995179 0.488311 2.000382 255 255 255
-3.693461 -0.056087 -0.175586 255 255 255
-1.195193 -0.146518 -1.267281 255 255 255
0.553481 -0.243337 2.007855 255 255 255
1.029910 -0.068910 2.148952 255 255 255
-3.925836 0.060039 1.285305 255 255 255
0.803733 0.102421 1.996237 255 255 255
0.603456 -0.250027 2.008379 255 255 255
-2.117684 -0.114642 1.817849 255 255 255
0.653888 -0.255775 1.995729 255 255 255
0.804734 -0.278101 2.012573 255 255 255
1.412583 0.145917 1.971603 255 255 255
1.725579 0.146818 -0.022150 255 255 255
0.843583 -0.284112 2.018664 255 255 255
1.207405 0.244495 2.035434 255 255 255
0.906396 -0.296998 2.066661 255 255 255
0.942444 -0.299159 2.028411 255 255 255
0.972574 -0.306428 2.064439 255 255 255
-0.193290 0.036267 1.357482 255 255 255
0.021384 -0.447092 2.274091 255 255 255
-1.761487 -0.214359 -0.190773 255 255 255
1.039176 -0.321240 2.127944 255 255 255
-3.320084 1.299890 -0.637269 255 255 255
1.167337 -0.356676 2.337300 255 255 255
0.998427 -0.298196 1.911338 255 255 255
1.482551 -0.371345 1.873028 255 255 255
-1.830609 0.582648 1.523609 255 255 255
0.986982 -0.292957 1.866016 255 255 255
1.023129 -0.293085 1.796751 255 255 255
-1.894274 -0.583135 2.282173 255 255 255
-1.676606 0.445643 -1.294847 255 255 255
1.052141 -0.298401 1.808350 255 255 255
1.044842 -0.296331 1.795830 255 255 255
-1.123069 -0.364295 2.234898 255 255 255
1.078864 -0.303522 1.821880 255 255 255
-3.672436 0.593087 0.576594 255 255 255
1.085758 -0.304760 1.824238 255 255 255
1.293111 -0.356018 2.080114 255 255 255
1.103139 -0.382332 -1.202435 255 255 255
1.319843 -0.362493 2.111249 255 255 255
1.656610 -0.002234 1.132715 255 255 255
-2.095826 -0.078490 1.321867 255 255 255
1.623289 -0.081330 -0.704226 255 255 255
1.403516 -0.383788 2.222432 255 255 255
0.554766 0.049243 1.992496 255 255 255
-1.195035 -0.099058 2.302557 255 255 255
1.494929 -0.406559 2.337149 255 255 255
-4.210236 -0.695916 1.123233 255 255 255
-0.351214 0.145624 2.013385 255 255 255
1.507411 -0.410076 2.358336 255 255 255
-1.095133 -0.519876 2.128519 255 255 255
0.404646 -0.297058 2.006636 255 255 255
1.492000 -0.401264 2.271542 255 255 255
1.088477 -0.501095 -1.202237 255 255 255
1.477476 -0.393917 2.202436 255 255 255
0.762086 0.045468 -1.236967 255 255 255
-3.891153 0.076725 -0.224954 255 255 255
1.681191 -0.033354 -0.040110 255 255 255
1.472045 -0.387861 2.130858 255 255 255
1.416614 -0.368657 1.986657 255 255 255
1.472420 -0.376724 1.973882 255 255 255
-0.042813 0.122906 1.343210 255 255 255
-0.236110 -0.095719 1.357844 255 255 255
1.481978 -0.378333 1.974839 255 255 255
1.391480 -0.605958 1.328278 255 255 255
1.475825 -0.373799 1.924290 255 255 255
-1.046428 0.336301 2.303954 255 255 255
1.475759 -0.370480 1.876575 255 255 255
1.477496 -0.367462 1.828483 255 255 255
-0.551729 -0.148157 2.297026 255 255 255
-0.466684 -0.309660 1.488622 255 255 255
1.478133 -0.364184 1.778655 255 255 255
1.489159 -0.362397 1.724683 255 255 255
-0.843807 -0.123867 2.294867 255 255 255
1.487984 -0.355762 1.626561 255 255 255
1.577506 -0.256053 -0.374818 255 255 255
1.185515 -0.170530 2.139574 255 255 255
1.534057 -0.373123 -0.625381 255 255 255
1.494775 -0.353868 1.579240 255 255 255
-3.352770 1.012928 2.219240 255 255 255
1.496635 -0.350756 1.524964 255 255 255
1.273239 0.078540 2.101061 255 255 255
1.502907 -0.348739 1.475163 255 255 255
1.505487 -0.346174 1.425736 255 255 255
1.503461 -0.342753 1.374365 255 255 255
1.504591 -0.340055 1.324936 255 255 255
0.508564 -0.385834 2.005495 255 255 255
-1.929820 0.248634 -1.302592 255 255 255
1.517840 -0.328790 1.074782 255 255 255
0.905032 0.143848 -1.228713 255 255 255
-0.044973 -0.324758 1.419409 255 255 255
-0.645660 0.111328 2.294951 255 255 255
1.518457 -0.326383 1.024233 255 255 255
1.520918 -0.324464 0.975077 255 255 255
-2.026482 0.037259 -0.373826 255 255 255
1.520756 -0.322096 0.924690 255 255 255
1.600908 -0.139617 0.924710 255 255 255
1.522812 -0.320289 0.875661 255 255 255
1.003428 0.086411 -1.224282 255 255 255
1.532173 -0.321915 0.873180 255 255 255
1.691210 0.115728 -0.839135 255 255 255
1.526538 -0.314904 0.726267 255 255 255
1.303637 -0.757860 2.275801 255 255 255
1.427938 -0.625765 -0.927296 255 255 255
1.720651 -0.003518 -1.152162 255 255 255
-1.958994 0.255603 1.627750 255 255 255
1.612044 -0.040882 1.932263 255 255 255
-2.962500 0.141093 1.604387 255 255 255
1.535248 -0.316473 0.724354 255 255 255
-1.960107 0.254075 1.474501 255 255 255
1.526751 -0.313003 0.673075 255 255 255
1.539232 -0.312144 0.575015 255 255 255
1.527370 -0.309752 0.571064 255 255 255
1.433131 -0.502116 1.608119 255 255 255
1.311435 -0.363263 -1.198042 255 255 255
1.538394 -0.310524 0.525507 255 255 255
-1.244352 0.552621 2.287223 255 255 255
0.954897 -0.021166 -1.219121 255 255 255
0.811306 -0.621193 2.127322 255 255 255
1.526746 -0.308209 0.522843 255 255 255
1.406741 -0.602032 0.810548 255 255 255
1.537659 -0.309013 0.474917 255 255 255
0.255279 0.007817 1.992961 255 255 255
1.273325 -0.839167 2.225260 255 255 255
1.528046 -0.305963 0.426660 255 255 255
-1.944949 0.250401 -1.294066 255 255 255
1.596293 -0.134612 1.374655 255 255 255
1.539165 -0.306963 0.374320 255 255 255
1.541069 -0.305537 0.274605 255 255 255
1.503427 -0.471306 -1.179027 255 255 255
1.544712 -0.304994 0.174906 255 255 255
0.504407 0.127341 2.005071 255 255 255
1.548112 -0.304959 0.075190 255 255 255
1.549023 -0.304997 0.025107 255 255 255
-1.594524 0.318691 2.275466 255 255 255
1.551738 -0.305955 -0.125242 255 255 255
1.433699 0.436780 2.139207 255 255 255
1.553607 -0.307299 -0.224952 255 255 255
1.647177 0.073708 -1.212248 255 255 255
1.555514 -0.309202 -0.325327 255 255 255
0.405928 -0.370667 2.004378 255 255 255
1.556849 -0.310422 -0.375304 255 255 255
1.562496 -0.313804 -0.474794 255 255 255
1.673231 0.057933 -0.981337 255 255 255
1.566798 -0.315966 -0.524823 255 255 255
1.581584 -0.318986 -0.531195 255 255 255
1.569377 -0.319461 -0.624506 255 255 255
-3.295858 -0.484889 1.632318 255 255 255
1.566879 -0.324342 -0.774675 255 255 255
1.566361 -0.326234 -0.824646 255 255 255
1.566976 -0.328450 -0.874942 255 255 255
-2.187365 -0.290531 1.623719 255 255 255
1.632478 0.095253 -0.537114 255 255 255
1.572819 -0.336335 -1.025147 255 255 255
1.568864 -0.340652 -1.126795 255 255 255
1.558402 -0.341485 -1.178944 255 255 255
-3.529388 0.995419 1.369110 255 255 255
1.628367 -0.143382 -0.771888 255 255 255
-1.651674 -0.169955 -0.723276 255 255 255
1.503303 -0.333040 -1.204673 255 255 255
1.506335 -0.333224 -1.198199 255 255 255
1.405505 -0.315739 -1.204291 255 255 255
1.653242 0.034542 -0.516152 255 255 255
1.402654 -0.314858 -1.197631 255 255 255
-2.386141 -0.076472 -1.297977 255 255 255
1.357398 -0.306915 -1.197537 255 255 255
1.356085 -0.307078 -1.204272 255 255 255
-1.886787 -0.030562 -0.259006 255 255 255
1.333107 -0.302652 -1.197214 255 255 255
1.720473 0.086050 -0.024976 255 255 255
1.308848 -0.298475 -1.197978 255 255 255
1.302011 -0.297697 -1.204860 255 255 255
-3.574033 0.845678 0.822486 255 255 255
-3.489962 0.441450 -1.350227 255 255 255
1.259060 -0.289901 -1.198832 255 255 255
1.253273 -0.289345 -1.206111 255 255 255
1.284193 -0.817276 2.118997 255 255 255
-0.443348 -0.285755 1.655401 255 255 255
1.203937 -0.280448 -1.199249 255 255 255
1.154646 -0.272613 -1.208316 255 255 255
1.356105 -0.050563 -1.197637 255 255 255
1.149669 -0.271177 -1.199024 255 255 255
1.671483 -0.075093 -1.074042 255 255 255
-4.246313 -0.724477 1.425266 255 255 255
1.094435 -0.261794 -1.198280 255 255 255
-1.506442 0.792330 2.205584 255 255 255
-2.084895 0.443380 -1.306900 255 255 255
1.057872 -0.256270 -1.207502 255 255 255
1.062115 -0.256380 -1.198414 255 255 255
1.465884 -0.443262 0.974699 255 255 255
1.004544 -0.247676 -1.211342 255 255 255
1.662515 -0.011986 0.925515 255 255 255
0.904185 -0.231588 -1.215629 255 255 255
-3.680134 0.597376 0.877647 255 255 255
0.154950 -0.337658 2.006017 255 255 255
0.803836 -0.215862 -1.219348 255 255 255
1.667279 -0.031795 -0.224741 255 255 255
-0.783811 -0.389665 2.309353 255 255 255
-1.744250 -0.472166 2.288592 255 255 255
0.904644 -0.058618 2.007699 255 255 255
0.755278 -0.208719 -1.225278 255 255 255
-4.114422 -0.403950 1.536487 255 255 255
0.701697 -0.246130 -1.219785 255 255 255
-3.566639 0.842687 0.774508 255 255 255
-1.445370 -0.013821 -1.280179 255 255 255
-4.043301 -0.347308 0.374914 255 255 255
-1.826805 0.586892 1.573610 255 255 255
-1.595180 -0.007690 -1.279093 255 255 255
-3.541878 0.827580 -0.225285 255 255 255
-0.176638 0.199177 1.445693 255 255 255
-1.646008 -0.005955 -1.283456 255 255 255
-1.747989 -0.002317 -1.287321 255 255 255
-0.424292 -0.315737 1.807201 255 255 255
-1.895609 0.002783 -1.291544 255 255 255
1.479324 -0.203191 2.020844 255 255 255
-1.943313 0.004460 -1.291219 255 255 255
-1.789869 0.005569 -1.158869 255 255 255
-1.776880 0.005636 -1.148227 255 255 255
-3.356931 0.950060 -1.358444 255 255 255
-0.496446 -0.367156 1.492781 255 255 255
-1.901432 0.006361 -1.221695 255 255 255
-2.086624 0.010449 -1.265881 255 255 255
-2.083860 0.011211 -1.247190 255 255 255
